# .PCD v0.7 - Point Cloud Data file format
VERSION 0.7
FIELDS x y z
SIZE 4 4 4
TYPE F F F
COUNT 1 1 1
WIDTH 500
HEIGHT 1
VIEWPOINT 0 0 0 1 0 0 0
POINTS 500
DATA ascii
1.28125 577.09375 197.9375
828.125 599.03125 -1427.1562
491.375 358.6875 917.4375
842.5625 764.5 -1607.0625
178.28125 879.53125 727.53125
525.84375 311.28125 -837.125
15.34375 93.59375 373.1875
150.84375 169.875 -320.71875
1012.2188 456.375 121.9375
4.78125 9.125 -13.90625
386.9375 544.40625 584.875
616.1875 621.71875 -1237.9062
170.21875 678.9375 461.59375
360.5625 58.40625 -418.96875
622.25 802.09375 821.84375
532.34375 309.1875 -841.53125
896.96875 744.09375 978.8125
947.90625 552.28125 -1500.1875
145.75 473.15625 240.96875
882.90625 214.625 -1097.5312
798.34375 863.875 1020.6875
1023.6562 626.15625 -1649.8125
401.84375 272.59375 304.40625
860.28125 24.3125 -884.59375
384.875 94.84375 693.4375
57.5625 9 -66.5625
940.8125 282.5 279.4375
602 707.75 -1309.75
857.6875 743.90625 496.5625
210.28125 761.5625 -971.84375
479.6875 468.9375 971.90625
762.28125 110.875 -873.15625
613.40625 394.46875 752.625
623.5625 586.125 -1209.6875
370 155.1875 230.5
435.34375 822.125 -1257.4688
529.5 1013.7188 769.5625
353.84375 173.03125 -526.875
673.0625 503.6875 65.0625
716.53125 516.90625 -1233.4375
151.03125 972.34375 144.96875
926.8125 709.5 -1636.3125
310.3125 436.78125 72.0625
989.78125 699.5625 -1689.3438
156.90625 898.28125 841.375
596 195.9375 -791.9375
182.15625 836.78125 486.65625
159.28125 516 -675.28125
749.5625 415.3125 286.28125
582.375 698.59375 -1280.9688
773.96875 739.21875 486.6875
125.96875 376.625 -502.59375
854.6875 35.9375 529.40625
678.875 436.4375 -1115.3125
107.1875 972.09375 943.46875
562.71875 354.28125 -917
483.03125 383.96875 867.28125
324.46875 467.03125 -791.5
278.40625 1006.5312 304.9375
756.90625 580.875 -1337.7812
200.6875 779.5625 859.5625
407.1875 512.90625 -920.09375
911.5 28.125 1018.4688
586.3125 51.71875 -638.03125
544.0625 198.71875 863.25
641.78125 673.375 -1315.1562
202.59375 862.34375 126.28125
112.5625 760.9375 -873.5
321.59375 963.625 292.9375
344.375 143.625 -488
750.65625 854.625 724.96875
614.625 765.125 -1379.75
258.78125 147.9375 1.65625
62.46875 825.5625 -888.03125
873.0625 215.625 118.375
566.46875 14.59375 -581.0625
116.5 465.40625 770.25
702.59375 556.46875 -1259.0625
75.65625 447.1875 206.78125
712.90625 297.3125 -1010.2188
447.15625 238 591.71875
545.34375 643.75 -1189.0938
164.03125 516.21875 986.125
712.4375 946.96875 -1659.4062
194.5 344 182.625
1019.0312 468.40625 -1487.4375
1021.9375 99.84375 640.15625
96.65625 448.21875 -544.875
953.84375 49.59375 916.0625
296.96875 232.75 -529.71875
787.5 420.5625 206.8125
643.125 618.625 -1261.75
462.4375 477.53125 612.15625
649.9375 875.28125 -1525.2188
848.65625 639.75 738.1875
579.3125 384.125 -963.4375
188.6875 755.59375 568.4375
926.78125 248.6875 -1175.4688
193.46875 619.21875 715.25
598.625 359.71875 -958.34375
506.3125 82.3125 758.5
626.71875 635.25 -1261.9688
707.6875 823.8125 152.6875
589.84375 888.53125 -1478.375
933.40625 629.4375 745.125
44.25 683.78125 -728.03125
999.9375 322.5625 582.84375
313.15625 178.09375 -491.25
111.15625 889.875 871.625
762.15625 158.59375 -920.75
334.75 81.25 78.4375
656.34375 839.65625 -1496
558.15625 459 418.78125
305.90625 476.71875 -782.625
513.21875 156.3125 330.78125
755.6875 321.40625 -1077.0938
846.5 982.0625 894.28125
742.40625 307.25 -1049.6562
966.625 130.28125 67.3125
803.78125 537.15625 -1340.9375
624.25 979.03125 74
896.625 669.53125 -1566.1562
329.84375 107.3125 517.15625
232.53125 297.25 -529.78125
942.03125 564.375 678.6875
117.28125 504.34375 -621.625
388.21875 508.71875 812.375
521.46875 391.53125 -913
704.65625 544.90625 620.8125
404.65625 6.03125 -410.6875
724.84375 103.03125 638
883.9375 503.28125 -1387.2188
765.25 508.8125 389.21875
804.1875 566.0625 -1370.25
365.65625 978.625 645.96875
180.8125 383.21875 -564.03125
134.78125 761.09375 974.53125
626.65625 28.5 -655.15625
337.75 57.25 654.53125
134.78125 867.375 -1002.1562
885.03125 611.1875 738.9375
874.4375 15.03125 -889.46875
129.5 724.875 631.9375
222.78125 67.53125 -290.3125
172.96875 639.0625 349.15625
327.0625 376.375 -703.4375
676.84375 821.625 826.21875
539.15625 625.75 -1164.9062
817.3125 922.1875 148.28125
645.28125 412.0625 -1057.3438
259.78125 139.8125 875.6875
67.75 438.0625 -505.8125
587.09375 309.53125 561.1875
230.96875 318.8125 -549.78125
113.28125 827.40625 137.9375
291.0625 807 -1098.0625
916.6875 808.5625 761.625
629.96875 369.78125 -999.75
877.1875 233.96875 884.28125
234.9375 255.53125 -490.46875
555.40625 1008.4375 55.09375
83.375 537.25 -620.625
437.03125 96.9375 265
912.90625 238.34375 -1151.25
150.0625 128.09375 953.96875
82.03125 48.21875 -130.25
60.125 344.46875 936.625
408.15625 443.15625 -851.3125
968.84375 857.25 547.03125
862.28125 710.15625 -1572.4375
407.21875 265.375 4.4375
538.1875 977.6875 -1515.875
408.25 246.875 599.59375
261.25 700.40625 -961.65625
967.9375 445.9375 911.5625
7.34375 963.53125 -970.875
615.96875 805 590.5
145.84375 227.65625 -373.5
392.1875 4.375 427.9375
84.21875 675.75 -759.96875
875.59375 66.40625 830.5
677.9375 708.0625 -1386
821.9375 542.84375 702.0625
146.1875 706.03125 -852.21875
745.34375 796.375 31.8125
889.5 659.96875 -1549.4688
723.5 87.5 565.21875
970.625 60.1875 -1030.8125
281.5625 148.65625 1005.3125
634.84375 299.25 -934.09375
944.59375 376.34375 711.1875
223.875 159.65625 -383.53125
246.3125 533.9375 923.90625
108.96875 924.28125 -1033.25
452.3125 82.03125 800.84375
175.90625 997.75 -1173.6562
794.46875 891.25 215.6875
467.5625 3.84375 -471.40625
768.625 116.78125 414.40625
318.59375 1016.4062 -1335
39.5 258.125 193.8125
253.625 157.1875 -410.8125
635.1875 906.59375 961.59375
200.34375 798.34375 -998.6875
661.03125 672.5 930.9375
466.375 943.375 -1409.75
680.09375 154.375 651.59375
583.1875 432.15625 -1015.3438
965.625 553.53125 592.4375
549.3125 261.40625 -810.71875
406.46875 358.65625 37.5
814.3125 201.21875 -1015.5312
71.96875 398.75 604.90625
72.625 202.40625 -275.03125
159.625 659.78125 465.21875
618.78125 714.0625 -1332.8438
451.875 700.875 406.03125
855.75 606.40625 -1462.1562
204.375 972.21875 897
401.09375 1011.125 -1412.2188
189.75 917.1875 588.21875
452.65625 642.375 -1095.0312
725.5 50.8125 292.40625
266.4375 417.40625 -683.84375
916.78125 727.21875 745.90625
917.53125 403 -1320.5312
406.9375 925.53125 316
397.40625 584.25 -981.65625
362.03125 751.28125 763.21875
754.03125 757.15625 -1511.1875
142.65625 204.96875 279.125
696.75 932.96875 -1629.7188
376.65625 530.0625 112
929.1875 207.9375 -1137.125
530.375 670.53125 449.03125
704.125 92.59375 -796.71875
81.46875 77.59375 28.46875
363.59375 314.59375 -678.1875
714 146.09375 404.3125
69.46875 691.9375 -761.40625
742.3125 203.46875 710.65625
630.46875 670.59375 -1301.0625
557.03125 100.65625 558.4375
50.8125 997.9375 -1048.75
475.15625 993.21875 745.3125
543.6875 696.21875 -1239.9062
709.40625 381.03125 397.9375
51.15625 829.1875 -880.34375
173.625 62.28125 318
803.28125 217.5625 -1020.8438
329.625 496.28125 9.375
450.40625 520.03125 -970.4375
620.46875 776.71875 410.6875
358.1875 862.84375 -1221.0312
964.90625 638.25 1021.1875
54.75 576.34375 -631.09375
884.25 396.03125 313.75
291.03125 27.34375 -318.375
627.25 400.5625 19.0625
31.78125 466.625 -498.40625
878.5 959.21875 411.53125
744.71875 626.25 -1370.9688
827.75 896.40625 596.5625
609.28125 80.90625 -690.1875
812.1875 473.28125 604.78125
603.5625 582.84375 -1186.4062
835.625 688.875 351.8125
10.46875 273.71875 -284.1875
349.75 237.65625 789.5
380.65625 890.71875 -1271.375
119.65625 742.96875 644
915.375 187.40625 -1102.7812
548.40625 923.625 798.78125
988.34375 202.09375 -1190.4375
923.15625 816.53125 976.25
869.15625 911.6875 -1780.8438
643.78125 189.90625 631.71875
271.34375 256.65625 -528
749.75 807 175.03125
731 492.46875 -1223.4688
83.4375 825.875 875.84375
127.625 314.84375 -442.46875
587.0625 484.3125 780.3125
196.46875 745.21875 -941.6875
1018.875 15.71875 663.15625
708.21875 178.3125 -886.53125
73.84375 281.5625 692.84375
859.03125 570 -1429.0312
380.125 798.1875 238.09375
653.53125 237.21875 -890.75
209.5 994.3125 288.5
23.4375 787.65625 -811.09375
155.46875 48.09375 9.46875
356.9375 659.3125 -1016.25
351.46875 424.5 426.5
92.84375 558.25 -651.09375
716.03125 346.09375 673.28125
897.25 548.3125 -1445.5625
583.6875 55.28125 476.9375
266.21875 437.03125 -703.25
884.03125 498.25 89.53125
579.375 726.40625 -1305.7812
797.125 884.9375 870.9375
300.03125 885.09375 -1185.125
660.375 764.75 848.5
783.96875 892.8125 -1676.7812
930.09375 934.40625 534.46875
450.71875 110.21875 -560.9375
362.5 842.78125 437.96875
173.90625 0.875 -174.78125
673.21875 792.09375 65.25
91.96875 394.90625 -486.875
700.28125 826.96875 157.78125
146.28125 49.625 -195.90625
354.4375 19 1001.875
663.15625 54.9375 -718.09375
936.0625 652.75 442.0625
21.5625 248.40625 -269.96875
401.34375 669.6875 800.625
23.375 845.84375 -869.21875
141.75 649.46875 563.59375
1007.0625 474.53125 -1481.5938
219.9375 307.90625 800.90625
350.75 492.125 -842.875
622.59375 104.96875 1008.0312
773.9375 154.5 -928.4375
467.34375 728.6875 1022.6875
794.09375 657.03125 -1451.125
636.09375 968.78125 704.65625
296.75 580.75 -877.5
297.34375 561.375 729.4375
252.34375 559.78125 -812.125
504.4375 974.875 685.875
783.5 638.3125 -1421.8125
456.4375 817.90625 763.40625
1012.625 209.53125 -1222.1562
644.5625 931.625 605.46875
940.40625 517.65625 -1458.0625
501.125 460.5 910.65625
962.9375 187.3125 -1150.25
258 207.875 748
963.6875 640.0625 -1603.75
42.34375 656.71875 35.34375
569.6875 557.53125 -1127.2188
457.03125 62.84375 1019.9062
130.8125 615.3125 -746.125
51.5625 176.9375 676.0625
340.40625 323.53125 -663.9375
669.25 420.375 437.75
226.9375 694.78125 -921.71875
170.4375 509.46875 519.8125
821.96875 445.5 -1267.4688
4.625 347.625 384.90625
131.65625 847.15625 -978.8125
750.875 912.5 658.75
666.1875 526.8125 -1193
751.5625 754.84375 980.03125
477 371.96875 -848.96875
114.875 926.34375 840.90625
465.6875 111.28125 -576.96875
890.28125 779.625 40.0625
426.65625 958.5625 -1385.2188
69.375 168.8125 216.34375
119.71875 605.28125 -725
121.1875 633.09375 594
706.84375 749.09375 -1455.9375
937.59375 685.78125 305.65625
828.25 387.25 -1215.5
1021.4062 791.03125 209.3125
174.65625 397.5625 -572.21875
185.5625 594.90625 200.3125
983.15625 194.8125 -1177.9688
390.875 311.28125 123.71875
202.90625 47.34375 -250.25
789.65625 779.28125 902.15625
1.8125 459.375 -461.1875
436.59375 820.75 472.40625
506.71875 767.34375 -1274.0625
244.21875 572.8125 94.96875
944.125 915.25 -1859.375
877.5625 61.0625 502.65625
647.1875 765.125 -1412.3125
774.1875 261.875 931.71875
810.96875 204.40625 -1015.375
566.09375 52.46875 534.6875
809.3125 721.03125 -1530.3438
24.625 749.28125 566.625
936.125 896.53125 -1832.6562
816.03125 312.75 404.40625
493.4375 53.84375 -547.28125
667.59375 0.875 787
774.3125 225 -999.3125
158.46875 58.90625 686.6875
33.46875 354.15625 -387.625
714.59375 817.28125 446.71875
1005.25 650.78125 -1656.0312
302.375 488.40625 895.3125
81.1875 103.40625 -184.59375
146.65625 146.4375 940
316.125 382.78125 -698.90625
833.34375 47.75 833.71875
245.75 919.40625 -1165.1562
262.65625 275.8125 213
234.875 866.4375 -1101.3125
895.8125 908.96875 865.03125
623.875 41.875 -665.75
177.6875 188.15625 364.4375
460.03125 189.5 -649.53125
915.90625 637.96875 559.4375
933.53125 535.125 -1468.6562
748.15625 1023.2812 992.5625
888.21875 860.34375 -1748.5625
150.1875 383.375 291.1875
175.0625 997.09375 -1172.1562
759.59375 733.78125 31.625
660.5 832.1875 -1492.6875
753.5625 837.78125 127.625
736.125 384.0625 -1120.1875
665.40625 937.375 911
32.9375 792.03125 -824.96875
459.625 7.75 234.09375
428.5 160.34375 -588.84375
941.0625 513.71875 248.6875
772.5625 928.25 -1700.8125
218.59375 32.875 789.65625
233.71875 569.9375 -803.65625
825.71875 872.4375 339.5625
551.84375 1015.5625 -1567.4062
890.1875 662.375 233.1875
832.28125 379.9375 -1212.2188
375.6875 35.8125 574.75
407.40625 122.65625 -530.0625
332.71875 920.5625 206.3125
962.71875 128.0625 -1090.7812
869.6875 915.375 456.25
227.4375 649.96875 -877.40625
573.5 639 433.8125
16.875 884.84375 -901.71875
142.96875 273.8125 298.96875
698 574.90625 -1272.9062
981.8125 621.78125 807.125
432.84375 838 -1270.8438
757.1875 139.03125 528.90625
20.5625 7.15625 -27.71875
766.25 341.875 923.75
473.34375 786.3125 -1259.6562
51.71875 646.09375 24.75
698.78125 992.3125 -1691.0938
512.4375 723.3125 272.3125
842.0625 662.125 -1504.1875
611.53125 269.9375 864.46875
471.09375 766.09375 -1237.1875
360.03125 14.84375 487.96875
641.5 413.5625 -1055.0625
392.8125 28.28125 295.75
611.15625 905.0625 -1516.2188
442.53125 953.875 392.15625
545.90625 10.3125 -556.21875
997.59375 885.9375 447.90625
716.40625 340.9375 -1057.3438
616.78125 510.5 573.03125
39.9375 387.28125 -427.21875
238.625 959.8125 880.125
987.21875 623.40625 -1610.625
597.96875 78.28125 416.78125
312.625 510.53125 -823.15625
81.96875 895.75 311.5625
800.25 955.25 -1755.5
602.53125 221.40625 286
574.15625 895.375 -1469.5312
256.0625 308.625 744.5625
887.375 236.625 -1124
195.28125 457.5 911.6875
588.09375 29.46875 -617.5625
1019.0938 60.65625 634.03125
263.09375 173.90625 -437
118.90625 237.03125 506.75
982.8125 50.46875 -1033.2812
81.53125 345.75 286.4375
527.90625 502.3125 -1030.2188
422.15625 946.875 615.46875
299.15625 487.15625 -786.3125
411.28125 974.125 561.5
854.9375 813.46875 -1668.4062
820.875 607.0625 890.9375
325.6875 961.6875 -1287.375
274.34375 965.9375 736
130.6875 793.46875 -924.15625
484.21875 180.125 27.3125
42.625 465.6875 -508.3125
882.96875 139.375 14.8125
217.875 838.15625 -1056.0312
816.3125 798.34375 674.28125
305.90625 800.15625 -1106.0625
943.59375 862.3125 248.4375
510.71875 23.5625 -534.28125
77.53125 31.625 364.75
732.46875 419.625 -1152.0938
184.75 305.0625 186.46875
762.75 137.96875 -900.71875
