# .PCD v0.7 - Point Cloud Data file format
VERSION 0.7
FIELDS x y z
SIZE 4 4 4
TYPE F F F
COUNT 1 1 1
WIDTH 2280
HEIGHT 1
VIEWPOINT 0 0 0 1 0 0 0
POINTS 2280
DATA ascii
10.44 5.5 9.4000006
10.44 5.4999995 9.2999992
10.440001 5.5 9.2000008
10.44 5.5 9.0999994
10.44 5.5 8.999999
10.440001 5.5000005 8.9000006
10.440001 5.5 8.8000002
10.44 5.5 8.6999998
10.44 5.5000005 8.6000004
10.440001 5.5 8.5
10.44 5.5000005 8.3999996
10.440001 5.5 8.3000002
10.44 5.5 8.1999998
10.440001 5.4999995 8.0999994
10.440001 5.5 8
10.440001 5.5000005 7.9000001
10.439999 5.5 7.7999997
10.440001 5.5 7.6999998
10.44 5.4999995 7.5999999
10.44 5.5 7.4999995
10.440001 5.5000005 7.4000006
10.440001 5.5 7.3000007
10.44 5.5 7.2000003
10.440001 5.5 7.1000009
10.440001 5.5 7
10.440001 5.5 6.9000001
10.440001 5.5 6.8000002
10.44 5.5 6.6999993
10.439999 5.5 6.5999994
10.440001 5.5 6.5
10.440001 5.5 6.3999996
10.44 5.5 6.2999997
10.440001 5.5000005 6.2000003
10.440001 5.5 6.1000004
10.440001 5.5 6.0000005
10.44 5.5 5.9000001
10.44 5.5 5.8000007
10.440001 5.5 5.6999998
10.440001 5.5 5.6000004
10.44 5.5 5.5
10.44 5.5 5.3999991
10.44 5.5 5.2999997
10.440001 5.5 5.1999998
10.440001 5.5 5.0999994
10.44 5.5 5
10.440001 5.5 4.9000001
10.440001 5.5 4.8000002
10.440001 5.5 4.7000003
10.44 5.5 4.5999999
10.44 5.5 4.4999995
10.440001 5.5 4.4000001
10.440001 5.5 4.3000002
10.44 5.5 4.1999998
10.440001 5.5 4.1000004
10.440001 5.5 3.9999998
10.440001 5.5 3.8999999
10.440001 5.5 3.8
10.440001 5.5 3.7000003
10.440001 5.5 3.6000001
10.440001 5.5 3.5000002
10.440001 5.5 3.3999999
10.44 5.5 3.2999997
10.440001 5.5 3.1999998
10.440001 5.5 3.1000001
10.44 5.5 3.0000002
10.440001 5.5 2.9000003
10.44 5.5 2.8
10.44 5.5 2.6999996
10.440001 5.5 2.5999999
10.44 5.5 2.5
10.44 5.5 2.4000001
10.440001 5.5 2.3000002
10.44 5.5 2.2000003
10.440001 5.5 2.0999997
10.440001 5.5 1.9999999
10.44 5.5 1.9
10.440001 5.5 1.8000001
10.440001 5.5 1.7
10.44 5.5 1.6000004
10.440001 5.5 1.4999998
10.440001 5.5 1.4
10.44 5.5 1.3
10.440001 5.5 1.2
10.440001 5.5000005 1.1000001
10.44 5.5 1.0000002
10.44 5.5 0.89999968
10.440001 5.5 0.79999983
10.440001 5.4999995 0.69999999
10.44 5.5 0.60000002
10.440001 5.5 0.50000012
10.44 5.5 0.40000024
10.44 5.5 0.29999971
10.440001 5.5 0.19999981
10.440001 5.5 0.099999905
10.44 5.5 0
10.43 5.5 10
10.429999 5.4999995 9.8999996
10.43 5.5 9.8000002
10.43 5.5 9.6999998
10.43 5.4999995 9.5999994
10.429999 5.5 9.5
10.43 5.4999995 9.3999996
10.429999 5.4999995 9.3000002
10.43 5.5 9.1999998
10.429999 5.4999995 9.0999994
10.43 5.4999995 9
10.43 5.5 8.9000006
10.43 5.5 8.8000002
10.43 5.5 8.7000008
10.43 5.5 8.6000004
10.43 5.5000005 8.500001
10.43 5.5000005 8.4000006
10.430001 5.5000005 8.3000002
10.430001 5.5000005 8.1999998
10.43 5.5 8.1000004
10.43 5.5 8
10.43 5.5000005 7.9000001
10.43 5.5 7.7999997
10.429999 5.5 7.6999998
10.43 5.5 7.5999999
10.43 5.5 7.5
10.43 5.5 7.4000001
10.43 5.5000005 7.3000002
10.43 5.5 7.2000003
10.43 5.5 7.1000004
10.43 5.5 7
10.43 5.5000005 6.9000001
10.43 5.5 6.8000002
10.43 5.5 6.6999998
10.43 5.5 6.5999999
10.43 5.5 6.5
10.43 5.5 6.4000001
10.43 5.5 6.3000002
10.43 5.5 6.2000003
10.43 5.5 6.1000004
10.43 5.5 6.0000005
10.43 5.5 5.9000006
10.43 5.5 5.8000007
10.43 5.5 5.6999998
10.43 5.5 5.6000004
10.43 5.5 5.5
10.429999 5.5 5.3999991
10.43 5.5 5.2999997
10.43 5.5 5.1999998
10.43 5.5 5.0999999
10.43 5.5 5
10.43 5.5 4.9000001
10.43 5.5 4.8000002
10.43 5.5 4.7000003
10.429999 5.5 4.5999999
10.43 5.5 4.5
10.43 5.5 4.4000001
10.43 5.5 4.3000002
10.43 5.5 4.2000003
10.43 5.5 4.1000004
10.43 5.5 3.9999998
10.43 5.5 3.8999999
10.43 5.5 3.8
10.43 5.5 3.7
10.43 5.5 3.6000001
10.43 5.5 3.5
10.43 5.5 3.3999999
10.43 5.5 3.3
10.43 5.5 3.2
10.43 5.5000005 3.1000001
10.43 5.5 3.0000002
10.43 5.5 2.9000003
10.429999 5.5 2.7999997
10.429999 5.5 2.6999996
10.43 5.5 2.5999999
10.43 5.5 2.5
10.43 5.5 2.4000001
10.43 5.5 2.3000002
10.43 5.5 2.2000003
10.43 5.5 2.0999999
10.43 5.5 1.9999999
10.43 5.5 1.9
10.43 5.5 1.8000001
10.43 5.5 1.7000002
10.43 5.5 1.6000003
10.43 5.5 1.4999998
10.43 5.5 1.3999999
10.43 5.5000005 1.3
10.43 5.5 1.2
10.43 5.5 1.1000001
10.43 5.5 1.0000002
10.43 5.5 0.89999974
10.43 5.5 0.79999983
10.429999 5.5 0.69999993
10.43 5.5 0.60000002
10.43 5.5 0.50000012
10.43 5.5 0.40000021
10.43 5.5 0.29999971
10.43 5.5 0.19999982
10.429999 5.5 0.099999912
10.43 5.5 0
10.42 5.5 10
10.42 5.5 9.9000006
10.42 5.5000005 9.8000011
10.42 5.5 9.6999998
10.42 5.5 9.5999994
10.42 5.5 9.5
10.420001 5.5 9.4000006
10.419999 5.5 9.3000002
10.42 5.5 9.2000008
10.42 5.5 9.0999994
10.42 5.5 9
10.42 5.5 8.8999996
10.42 5.5 8.7999992
10.42 5.5 8.6999998
10.419999 5.5 8.6000004
10.420001 5.500001 8.500001
10.42 5.5 8.4000006
10.420001 5.5 8.2999992
10.42 5.4999995 8.1999998
10.419999 5.5000005 8.1000004
10.420001 5.5 8
10.42 5.5 7.9000001
10.42 5.5 7.7999997
10.42 5.5 7.6999998
10.42 5.4999995 7.5999994
10.42 5.5 7.5
10.42 5.5 7.4000001
10.42 5.5000005 7.3000007
10.420001 5.5000005 7.2000008
10.42 5.5000005 7.1000004
10.42 5.5 7
10.42 5.5 6.9000001
10.42 5.5 6.8000007
10.42 5.5 6.6999993
10.42 5.5 6.5999994
10.42 5.5 6.5
10.420001 5.5 6.4000001
10.42 5.5 6.2999997
10.42 5.5 6.1999998
10.42 5.5 6.1000004
10.42 5.5 6.0000005
10.420001 5.5 5.9000006
10.42 5.5 5.8000007
10.42 5.5 5.6999998
10.42 5.5 5.6000004
10.420001 5.5 5.5000005
10.42 5.5 5.4000001
10.42 5.5 5.2999992
10.42 5.5 5.1999998
10.42 5.5 5.0999999
10.42 5.5 5
10.42 5.5 4.9000006
10.42 5.5 4.8000002
10.42 5.5 4.7000003
10.42 5.5 4.5999999
10.420001 5.5 4.5
10.42 5.5 4.3999996
10.42 5.5 4.3000002
10.42 5.5 4.2000003
10.42 5.5 4.1000004
10.42 5.5 3.9999998
10.42 5.5 3.8999999
10.42 5.5 3.7999997
10.42 5.5 3.7
10.42 5.5 3.6000004
10.42 5.5 3.5000002
10.42 5.5 3.3999996
10.42 5.5 3.2999997
10.42 5.5 3.2
10.42 5.5 3.0999999
10.42 5.5 3.0000002
10.42 5.5 2.9000003
10.42 5.5 2.7999997
10.42 5.5 2.7
10.42 5.5 2.5999999
10.42 5.5 2.5
10.42 5.5 2.4000001
10.42 5.5 2.3000002
10.42 5.5 2.2000003
10.42 5.5 2.0999999
10.42 5.5 1.9999999
10.42 5.5000005 1.8999999
10.42 5.5 1.8000002
10.42 5.5 1.7000003
10.42 5.5 1.6000004
10.42 5.5000005 1.4999999
10.42 5.5 1.3999999
10.42 5.5 1.3
10.42 5.5 1.2
10.42 5.5 1.1000001
10.42 5.5 1.0000002
10.42 5.5000005 0.89999974
10.42 5.5 0.79999983
10.42 5.5 0.69999993
10.42 5.5 0.60000002
10.42 5.5 0.50000012
10.42 5.5 0.40000021
10.42 5.5 0.29999971
10.42 5.5 0.19999982
10.42 5.5000005 0.099999912
10.42 5.5 0
10.41 5.4999995 9.999999
10.409999 5.4999995 9.8999996
10.410001 5.5000005 9.8000002
10.41 5.5 9.6999998
10.409999 5.5 9.5999994
10.41 5.5 9.5
10.410001 5.5 9.3999996
10.409999 5.4999995 9.2999992
10.41 5.5 9.1999998
10.41 5.4999995 9.1000004
10.409999 5.5 9
10.410001 5.5 8.8999996
10.41 5.4999995 8.7999992
10.409999 5.5 8.6999998
10.41 5.5 8.5999994
10.41 5.5 8.5
10.41 5.4999995 8.3999996
10.41 5.5 8.3000002
10.41 5.4999995 8.1999998
10.409999 5.4999995 8.0999994
10.410001 5.4999995 8
10.41 5.5 7.8999996
10.41 5.4999995 7.7999997
10.41 5.5 7.6999998
10.409999 5.5 7.5999994
10.410001 5.5 7.5
10.41 5.4999995 7.3999996
10.41 5.5 7.2999997
10.41 5.5 7.1999998
10.41 5.5 7.0999999
10.41 5.4999995 7
10.41 5.5 6.9000001
10.41 5.5 6.7999997
10.41 5.5 6.6999998
10.409999 5.4999995 6.5999994
10.41 5.4999995 6.5
10.41 5.5 6.3999996
10.41 5.5 6.2999997
10.41 5.5 6.1999998
10.409999 5.4999995 6.0999994
10.41 5.5 6
10.41 5.5 5.9000001
10.41 5.5 5.8000002
10.41 5.5 5.7000003
10.41 5.5 5.5999999
10.41 5.5 5.4999995
10.41 5.5 5.3999996
10.41 5.5 5.2999992
10.41 5.5 5.1999993
10.41 5.5 5.0999999
10.41 5.4999995 4.9999995
10.41 5.5 4.9000001
10.41 5.5 4.8000002
10.41 5.5 4.6999998
10.41 5.5 4.5999999
10.41 5.5 4.5
10.41 5.5 4.3999996
10.41 5.5 4.2999997
10.41 5.5 4.1999998
10.41 5.5 4.1000004
10.41 5.5 3.9999995
10.41 5.4999995 3.8999999
10.41 5.5 3.7999997
10.41 5.5 3.6999998
10.41 5.5 3.5999999
10.41 5.5 3.5000002
10.41 5.5 3.3999996
10.41 5.4999995 3.2999997
10.41 5.5 3.1999998
10.41 5.5 3.0999999
10.41 5.5 3
10.41 5.5 2.9000001
10.41 5.5 2.7999997
10.41 5.5 2.6999998
10.41 5.5 2.5999997
10.41 5.5 2.4999998
10.41 5.5 2.4000001
10.41 5.5 2.3000002
10.41 5.5 2.2000003
10.409999 5.5 2.0999997
10.41 5.4999995 1.9999998
10.41 5.4999995 1.8999999
10.41 5.5 1.8
10.41 5.5 1.7000002
10.41 5.5 1.6000003
10.41 5.4999995 1.4999998
10.41 5.5 1.3999999
10.409999 5.4999995 1.2999998
10.41 5.5 1.2
10.41 5.5 1.1000001
10.41 5.5 1.0000002
10.409999 5.4999995 0.89999968
10.41 5.5 0.79999977
10.41 5.4999995 0.69999993
10.41 5.5 0.60000002
10.41 5.5 0.50000012
10.41 5.4999995 0.40000018
10.41 5.4999995 0.29999971
10.41 5.5 0.19999981
10.41 5.5 0.099999905
10.41 5.4999995 0
10.4 5.5 10
10.399999 5.4999995 9.8999996
10.4 5.5 9.7999992
10.4 5.5000005 9.7000008
10.4 5.4999995 9.5999994
10.4 5.5 9.499999
10.4 5.5 9.3999996
10.4 5.4999995 9.3000002
10.4 5.5 9.1999998
10.4 5.5 9.0999994
10.399999 5.4999995 8.999999
10.4 5.4999995 8.8999996
10.400001 5.5 8.8000002
10.4 5.4999995 8.6999998
10.400001 5.5 8.5999994
10.4 5.5 8.5
10.400001 5.4999995 8.3999996
10.4 5.5 8.3000002
10.4 5.5 8.1999998
10.4 5.4999995 8.1000004
10.4 5.4999995 8
10.400001 5.5 7.9000001
10.4 5.5 7.7999997
10.4 5.5 7.6999993
10.4 5.5 7.5999994
10.4 5.499999 7.4999995
10.4 5.5 7.3999996
10.400001 5.5000005 7.3000002
10.4 5.5 7.1999998
10.4 5.5 7.0999999
10.4 5.5 7
10.4 5.5 6.9000001
10.4 5.5 6.8000002
10.399999 5.4999995 6.6999993
10.4 5.5 6.5999994
10.4 5.5 6.5
10.4 5.5 6.3999996
10.4 5.5 6.2999997
10.4 5.5 6.1999998
10.400001 5.5 6.1000004
10.4 5.5 6
10.4 5.5 5.9000006
10.4 5.5 5.8000002
10.4 5.5 5.6999998
10.400001 5.5 5.5999999
10.4 5.5 5.5
10.4 5.4999995 5.3999996
10.4 5.5 5.2999992
10.4 5.5 5.1999998
10.4 5.5 5.1000004
10.4 5.5 5
10.4 5.5 4.8999996
10.4 5.5 4.8000002
10.4 5.5 4.6999998
10.4 5.5 4.5999999
10.4 5.5 4.4999995
10.400001 5.5 4.4000001
10.4 5.5 4.2999997
10.4 5.5 4.1999998
10.4 5.5 4.0999999
10.4 5.5 3.9999995
10.4 5.5 3.8999999
10.4 5.5 3.7999997
10.4 5.5 3.6999998
10.4 5.5 3.5999999
10.4 5.5 3.5000005
10.4 5.5 3.3999996
10.4 5.5 3.2999997
10.4 5.5 3.1999998
10.4 5.5 3.0999999
10.4 5.5 3
10.4 5.5 2.9000001
10.4 5.5 2.7999997
10.4 5.5 2.6999998
10.4 5.5 2.5999999
10.4 5.4999995 2.5
10.4 5.5 2.4000001
10.4 5.5 2.3000002
10.4 5.5 2.2000003
10.4 5.5 2.0999999
10.4 5.5 1.9999998
10.4 5.5 1.8999999
10.4 5.5 1.8
10.4 5.5 1.7000002
10.4 5.5 1.6000004
10.4 5.5 1.4999998
10.4 5.5 1.3999999
10.400001 5.5 1.3
10.4 5.5 1.2
10.4 5.4999995 1.1000001
10.4 5.5 1.0000002
10.4 5.5 0.89999974
10.4 5.5 0.79999977
10.4 5.5 0.69999993
10.4 5.5 0.60000002
10.4 5.5 0.50000012
10.4 5.5 0.40000018
10.4 5.5 0.29999971
10.4 5.5 0.19999981
10.4 5.5 0.099999905
10.4 5.5 0
10.39 5.5 10
10.389999 5.5 9.8999996
10.39 5.5 9.8000002
10.39 5.5000005 9.7000008
10.389999 5.4999995 9.5999994
10.39 5.5 9.5
10.39 5.5 9.4000006
10.39 5.5 9.3000002
10.389999 5.5 9.1999998
10.39 5.5 9.1000004
10.389999 5.4999995 8.999999
10.389999 5.499999 8.8999996
10.389999 5.5 8.8000002
10.389999 5.5 8.6999998
10.39 5.5 8.5999994
10.389999 5.5000005 8.5
10.39 5.5 8.4000006
10.389999 5.5 8.2999992
10.39 5.5 8.1999998
10.39 5.5 8.1000004
10.39 5.5 8
10.39 5.5 7.9000001
10.389999 5.5 7.7999997
10.39 5.5 7.6999998
10.389999 5.5 7.5999999
10.39 5.5 7.5
10.389999 5.4999995 7.3999996
10.389999 5.5 7.2999997
10.39 5.5 7.1999998
10.39 5.5 7.1000004
10.389999 5.5 6.9999995
10.389999 5.5 6.8999996
10.389999 5.5 6.8000002
10.389999 5.5 6.6999993
10.389999 5.5 6.5999994
10.389999 5.5 6.5
10.389999 5.5 6.4000001
10.39 5.5 6.2999997
10.39 5.5 6.2000003
10.39 5.5 6.1000004
10.39 5.5000005 6
10.389999 5.5 5.9000001
10.39 5.5 5.8000002
10.389999 5.5 5.6999993
10.389999 5.5 5.6000004
10.389999 5.5 5.5
10.389999 5.5 5.3999996
10.389999 5.5 5.2999992
10.389999 5.5 5.1999998
10.389999 5.5 5.0999994
10.39 5.5 5
10.389999 5.5 4.9000001
10.389999 5.5 4.8000002
10.389999 5.5 4.7000008
10.389999 5.5 4.5999999
10.389999 5.5 4.4999995
10.389999 5.5 4.4000001
10.389999 5.5 4.2999997
10.39 5.5 4.2000003
10.389999 5.5 4.1000004
10.389999 5.5 3.9999998
10.39 5.5 3.8999999
10.389999 5.5 3.8
10.39 5.5 3.6999998
10.389999 5.5 3.5999999
10.389999 5.5 3.5000002
10.389999 5.5 3.3999996
10.389999 5.5 3.2999997
10.389999 5.5 3.2
10.389999 5.5 3.1000001
10.389999 5.5 3
10.389999 5.5 2.9000001
10.389999 5.5 2.7999997
10.389999 5.5 2.6999998
10.389999 5.5 2.5999999
10.389999 5.5 2.5
10.389999 5.5 2.4000001
10.39 5.5 2.3000002
10.39 5.5 2.2000003
10.39 5.5 2.0999997
10.39 5.5 1.9999999
10.389999 5.5 1.9
10.389999 5.5 1.8
10.389999 5.5 1.7000002
10.389999 5.5 1.6000003
10.39 5.5 1.4999998
10.39 5.5 1.3999999
10.389999 5.5 1.3
10.389999 5.5 1.2
10.389999 5.5 1.1000001
10.389999 5.4999995 1.0000002
10.389999 5.5 0.89999974
10.389999 5.4999995 0.79999983
10.39 5.5 0.69999993
10.389999 5.5 0.60000002
10.39 5.5 0.50000012
10.39 5.5 0.40000021
10.39 5.5 0.29999968
10.389999 5.5 0.19999981
10.389999 5.5 0.099999905
10.39 5.5 0
10.38 5.5 10
10.38 5.5 9.8999996
10.38 5.4999995 9.7999992
10.379999 5.5000005 9.7000008
10.38 5.5 9.6000004
10.38 5.4999995 9.5
10.380001 5.5 9.4000006
10.38 5.5 9.3000002
10.38 5.5 9.1999998
10.38 5.4999995 9.0999994
10.38 5.5 9
10.379999 5.5 8.8999996
10.379999 5.5 8.8000002
10.38 5.5000005 8.6999998
10.38 5.4999995 8.5999994
10.379999 5.5 8.5
10.38 5.5 8.4000006
10.379999 5.5 8.3000002
10.38 5.5000005 8.1999998
10.380001 5.5 8.1000004
10.379999 5.5 8
10.38 5.5 7.9000001
10.38 5.5 7.7999997
10.38 5.5 7.6999993
10.379999 5.5 7.5999994
10.379999 5.5 7.4999995
10.379999 5.4999995 7.4000001
10.38 5.5 7.3000002
10.38 5.5 7.1999998
10.38 5.5 7.1000004
10.38 5.5 7
10.38 5.5 6.8999996
10.379999 5.5 6.8000002
10.379999 5.4999995 6.6999998
10.38 5.5 6.5999999
10.38 5.5 6.5
10.38 5.5 6.4000001
10.379999 5.4999995 6.2999997
10.379999 5.5 6.1999998
10.380001 5.5 6.0999999
10.38 5.5 6
10.38 5.5 5.9000006
10.38 5.5000005 5.8000007
10.379999 5.4999995 5.6999998
10.379999 5.5 5.5999999
10.379999 5.5 5.5
10.379999 5.5 5.3999996
10.379999 5.5 5.2999997
10.379999 5.5 5.1999998
10.379999 5.5 5.0999999
10.38 5.5 5
10.379999 5.5 4.8999996
10.38 5.5 4.8000007
10.379999 5.5 4.7000003
10.379999 5.5 4.5999999
10.379999 5.5 4.5
10.379999 5.5 4.4000001
10.379999 5.4999995 4.2999997
10.38 5.5 4.2000003
10.379999 5.5 4.1000004
10.379999 5.5 3.9999998
10.38 5.5 3.8999999
10.379999 5.5 3.7999997
10.379999 5.5 3.7
10.38 5.5 3.5999999
10.379999 5.5 3.5000005
10.379999 5.5 3.3999996
10.38 5.5 3.3
10.379999 5.5 3.2
10.379999 5.5 3.0999999
10.38 5.5 3
10.379999 5.5 2.9000003
10.38 5.4999995 2.7999997
10.38 5.5 2.6999998
10.379999 5.5 2.5999999
10.38 5.5 2.5
10.38 5.5 2.4000003
10.379999 5.5 2.3000002
10.38 5.5 2.2000003
10.38 5.5 2.0999999
10.38 5.5 1.9999999
10.38 5.5 1.8999999
10.38 5.5 1.8
10.379999 5.5 1.7000002
10.38 5.5 1.6000003
10.38 5.5 1.4999998
10.38 5.4999995 1.3999999
10.38 5.5 1.3
10.38 5.5 1.2000002
10.379999 5.5 1.1000001
10.38 5.5 1.0000002
10.38 5.5 0.89999974
10.38 5.4999995 0.79999983
10.380001 5.5 0.69999993
10.38 5.5 0.60000008
10.38 5.4999995 0.50000012
10.379999 5.5 0.40000021
10.38 5.5 0.29999968
10.379999 5.4999995 0.19999981
10.38 5.5 0.099999905
10.38 5.5 0
10.37 5.5 10
10.37 5.5000005 9.8999996
10.37 5.4999995 9.8000002
10.370001 5.5 9.6999998
10.370001 5.5000005 9.6000004
10.370001 5.5000005 9.5
10.369999 5.5 9.3999996
10.37 5.5 9.3000002
10.37 5.5000005 9.1999998
10.369999 5.5 9.0999994
10.37 5.4999995 9
10.37 5.5 8.8999996
10.37 5.5000005 8.8000002
10.37 5.4999995 8.7000008
10.370001 5.5 8.6000004
10.370001 5.5000005 8.5
10.370001 5.5 8.4000006
10.37 5.4999995 8.2999992
10.37 5.5 8.1999998
10.37 5.5 8.1000004
10.370001 5.5000005 8
10.370001 5.5 7.9000001
10.369999 5.5 7.7999992
10.37 5.5 7.6999998
10.37 5.5 7.5999999
10.370001 5.5 7.5000005
10.37 5.5000005 7.4000001
10.37 5.5000005 7.2999997
10.37 5.5 7.2000003
10.370001 5.5 7.1000004
10.37 5.5 6.9999995
10.37 5.5 6.9000001
10.37 5.5 6.7999997
10.37 5.5 6.6999998
10.37 5.5 6.5999994
10.369999 5.4999995 6.4999995
10.370001 5.5 6.3999996
10.37 5.5 6.2999997
10.369999 5.5 6.1999998
10.370001 5.5 6.1000004
10.370001 5.5000005 6.0000005
10.370001 5.5000005 5.9000006
10.370001 5.5 5.8000007
10.370001 5.5 5.6999998
10.37 5.5 5.5999994
10.37 5.5 5.5
10.369999 5.5 5.3999996
10.37 5.5 5.3000002
10.37 5.5 5.2000003
10.369999 5.5 5.0999999
10.37 5.5 5
10.369999 5.5 4.9000001
10.37 5.5 4.8000002
10.370001 5.5 4.7000003
10.370001 5.5 4.5999999
10.37 5.5 4.5
10.37 5.5 4.4000001
10.370001 5.5 4.3000002
10.37 5.5 4.2000003
10.370001 5.5 4.1000004
10.37 5.5 4
10.37 5.5 3.8999996
10.369999 5.5 3.8
10.37 5.5 3.7
10.370001 5.5 3.6000001
10.369999 5.5 3.5
10.370001 5.5 3.3999996
10.370001 5.5 3.2999997
10.370001 5.5 3.1999998
10.37 5.5 3.0999999
10.37 5.5 3.0000002
10.37 5.5 2.9000003
10.37 5.5 2.7999997
10.37 5.5 2.6999998
10.37 5.5 2.6000001
10.37 5.5 2.5
10.37 5.5 2.4000001
10.37 5.5 2.3000002
10.37 5.5 2.2000003
10.370001 5.5 2.0999997
10.370001 5.5 2
10.37 5.5 1.9
10.370001 5.5 1.8000001
10.369999 5.5 1.7
10.37 5.5 1.6000003
10.37 5.5 1.4999996
10.37 5.5 1.3999999
10.37 5.5 1.3000001
10.370001 5.5 1.2
10.37 5.5 1.1000001
10.370001 5.5 1.0000002
10.37 5.5 0.89999974
10.370001 5.5 0.79999983
10.37 5.5000005 0.69999993
10.37 5.5 0.60000002
10.370001 5.5 0.50000012
10.37 5.5000005 0.40000021
10.37 5.5 0.29999971
10.37 5.5 0.19999981
10.37 5.5 0.099999905
10.37 5.5 0
10.36 5.5 10
10.36 5.5 9.8999996
10.360001 5.5000005 9.8000002
10.36 5.5 9.6999998
10.36 5.4999995 9.5999994
10.360001 5.5 9.5
10.36 5.5000005 9.4000006
10.360001 5.4999995 9.3000002
10.36 5.5000005 9.2000008
10.36 5.5 9.0999994
10.36 5.5 9
10.360001 5.5 8.8999996
10.360001 5.4999995 8.8000002
10.36 5.5 8.6999998
10.360001 5.5 8.6000004
10.36 5.5 8.5
10.360002 5.5000005 8.4000015
10.360001 5.5 8.3000002
10.360001 5.5 8.1999998
10.36 5.5 8.1000004
10.36 5.5 8
10.360001 5.5 7.9000001
10.36 5.4999995 7.7999997
10.359999 5.5 7.6999998
10.36 5.5 7.5999999
10.36 5.5 7.5
10.360001 5.5 7.4000006
10.360001 5.5000005 7.3000002
10.360001 5.5 7.2000008
10.360001 5.5 7.1000004
10.360001 5.5 7
10.360001 5.5 6.9000001
10.36 5.5 6.8000002
10.36 5.5 6.6999998
10.359999 5.5 6.5999994
10.360001 5.5 6.5
10.360001 5.5000005 6.4000001
10.360001 5.5 6.3000002
10.360001 5.5 6.2000003
10.360001 5.5 6.1000004
10.360001 5.5000005 6.0000005
10.360001 5.5 5.9000006
10.360001 5.5 5.8000002
10.36 5.5 5.6999998
10.360001 5.5 5.5999999
10.360001 5.5 5.5
10.36 5.5 5.3999996
10.360001 5.5 5.3000002
10.36 5.5 5.1999998
10.360001 5.5 5.1000004
10.36 5.5 5
10.360001 5.5 4.9000001
10.360001 5.5 4.8000002
10.360001 5.5 4.7000003
10.360001 5.5 4.5999999
10.360001 5.5 4.5
10.360001 5.5 4.4000001
10.360001 5.5 4.3000002
10.360001 5.5 4.2000008
10.360001 5.5 4.1000004
10.36 5.5000005 3.9999998
10.360001 5.5 3.8999999
10.360001 5.5 3.8
10.360001 5.5 3.7000003
10.360001 5.5000005 3.6000004
10.360001 5.5 3.5000002
10.360001 5.5 3.3999999
10.360001 5.5 3.2999997
10.360001 5.5 3.2
10.360001 5.5 3.1000001
10.360001 5.5 3.0000002
10.36 5.5 2.9000001
10.360001 5.5 2.7999997
10.360001 5.5 2.6999998
10.360001 5.5 2.5999999
10.360001 5.5 2.5
10.36 5.5 2.4000001
10.360001 5.5 2.3000002
10.360001 5.5 2.2000003
10.360001 5.5 2.0999999
10.360001 5.5 1.9999999
10.36 5.5 1.9
10.360001 5.5 1.8000002
10.360001 5.5 1.7000002
10.360001 5.5 1.6000001
10.36 5.5 1.4999996
10.36 5.5 1.3999999
10.360001 5.5 1.3
10.360001 5.5 1.2
10.360001 5.5 1.1000001
10.360001 5.5 1.0000002
10.360001 5.5 0.89999974
10.36 5.5 0.79999983
10.360001 5.5 0.69999993
10.360001 5.5000005 0.60000002
10.360001 5.5000005 0.50000012
10.36 5.5 0.40000021
10.36 5.5 0.29999974
10.360001 5.5 0.19999981
10.360001 5.5 0.099999905
10.36 5.5 0
10.35 5.5 10
10.35 5.5000005 9.9000015
10.350001 5.5000005 9.8000011
10.35 5.5000005 9.6999998
10.35 5.4999995 9.6000004
10.35 5.5 9.5
10.35 5.5 9.4000006
10.349999 5.5000005 9.3000011
10.35 5.5000005 9.2000008
10.35 5.5 9.0999994
10.35 5.5 9
10.35 5.5 8.8999996
10.349999 5.5 8.8000002
10.35 5.5000005 8.7000008
10.35 5.5000005 8.6000004
10.35 5.5000005 8.5
10.350001 5.5000005 8.4000006
10.35 5.5000005 8.3000002
10.35 5.5 8.2000008
10.35 5.5000005 8.1000004
10.349999 5.5 8
10.35 5.5000005 7.9000001
10.35 5.5 7.8000002
10.35 5.5000005 7.6999998
10.35 5.5 7.5999999
10.35 5.500001 7.5000005
10.35 5.5 7.4000001
10.35 5.5000005 7.3000002
10.35 5.5000005 7.2000008
10.35 5.5000005 7.1000009
10.35 5.5000005 7.0000005
10.35 5.5 6.8999996
10.35 5.5 6.8000002
10.35 5.5 6.6999998
10.35 5.5 6.5999994
10.35 5.5 6.5
10.35 5.5 6.4000006
10.349999 5.5 6.3000002
10.35 5.5 6.1999998
10.35 5.5 6.1000004
10.35 5.5 6.0000005
10.350001 5.5000005 5.900001
10.35 5.5000005 5.8000011
10.35 5.5000005 5.7000003
10.35 5.5 5.6000004
10.35 5.5 5.5
10.35 5.5 5.4000001
10.35 5.5 5.2999997
10.35 5.5 5.2000003
10.35 5.5 5.0999999
10.35 5.5 5
10.35 5.5 4.9000006
10.35 5.5 4.8000002
10.35 5.5 4.7000003
10.35 5.5 4.5999999
10.35 5.5 4.5
10.35 5.5 4.4000001
10.35 5.5000005 4.3000002
10.35 5.5 4.2000003
10.35 5.5 4.1000004
10.35 5.5000005 4
10.35 5.5 3.9000001
10.35 5.5 3.8
10.35 5.5 3.7
10.35 5.5 3.6000004
10.35 5.5 3.5000002
10.35 5.5 3.3999999
10.35 5.5 3.2999997
10.35 5.5 3.2000003
10.35 5.5 3.0999999
10.35 5.5 3.0000002
10.35 5.5000005 2.9000006
10.35 5.5 2.7999997
10.35 5.5 2.7
10.35 5.5 2.6000001
10.35 5.5000005 2.5
10.35 5.5000005 2.4000001
10.35 5.5 2.3000002
10.35 5.5 2.2000005
10.35 5.5 2.0999999
10.35 5.5 2
10.35 5.5000005 1.9
10.35 5.5 1.8000002
10.35 5.5 1.7000002
10.35 5.5 1.6000003
10.35 5.5 1.4999998
10.35 5.5 1.3999999
10.35 5.5 1.3000001
10.35 5.5000005 1.2
10.35 5.5 1.1000003
10.35 5.5 1.0000002
10.35 5.5 0.89999974
10.35 5.5000005 0.79999989
10.35 5.5 0.69999993
10.35 5.5 0.60000002
10.35 5.5 0.50000012
10.35 5.5 0.40000024
10.35 5.5 0.29999971
10.35 5.5000005 0.19999981
10.35 5.5 0.099999905
10.35 5.5 0
10.34 5.5000005 10
10.34 5.5000005 9.9000006
10.340001 5.5000005 9.8000002
10.34 5.5000005 9.7000008
10.34 5.5000005 9.6000004
10.340001 5.5000005 9.5
10.339999 5.5000005 9.3999996
10.34 5.5000005 9.3000002
10.34 5.4999995 9.1999998
10.34 5.4999995 9.1000004
10.34 5.4999995 9
10.34 5.5 8.9000006
10.34 5.5 8.8000002
10.34 5.5 8.7000008
10.340001 5.5000005 8.6000013
10.34 5.5 8.5
10.340001 5.5000005 8.4000006
10.34 5.5 8.3000002
10.34 5.5000005 8.2000008
10.340001 5.5 8.1000004
10.340001 5.500001 8
10.34 5.5000005 7.9000001
10.34 5.5 7.8000002
10.339999 5.5000005 7.6999998
10.34 5.5 7.6000004
10.339999 5.5 7.5
10.34 5.5 7.4000006
10.340001 5.5000005 7.3000011
10.34 5.5000005 7.2000003
10.340001 5.5000005 7.1000009
10.34 5.5 7
10.34 5.5 6.9000006
10.34 5.5 6.8000002
10.34 5.5 6.6999998
10.339999 5.5 6.5999994
10.34 5.5 6.5
10.34 5.5 6.3999996
10.34 5.5 6.3000002
10.34 5.5000005 6.2000008
10.34 5.5 6.1000004
10.340002 5.5000005 6.000001
10.340001 5.5000005 5.9000006
10.34 5.5000005 5.8000007
10.34 5.5 5.6999998
10.34 5.5 5.6000004
10.34 5.5 5.5000005
10.34 5.5 5.3999996
10.34 5.5 5.3000002
10.34 5.5 5.1999998
10.34 5.5 5.0999999
10.34 5.5000005 5
10.34 5.5 4.9000001
10.34 5.5 4.8000007
10.34 5.5 4.7000008
10.34 5.5 4.5999999
10.34 5.5 4.5
10.34 5.5 4.4000001
10.34 5.5 4.3000007
10.34 5.5 4.2000003
10.34 5.5000005 4.1000004
10.34 5.5 4
10.34 5.5 3.9000001
10.34 5.5000005 3.8000002
10.34 5.5 3.7000003
10.34 5.5 3.6000001
10.34 5.5 3.5000002
10.34 5.5 3.3999996
10.34 5.5 3.2999997
10.34 5.5 3.1999998
10.34 5.5 3.1000004
10.34 5.5 3.0000005
10.34 5.5 2.9000003
10.34 5.5 2.7999997
10.34 5.5 2.6999998
10.34 5.5 2.5999999
10.34 5.5 2.5
10.34 5.5 2.4000003
10.34 5.5 2.3000002
10.34 5.5 2.2000003
10.34 5.5 2.0999999
10.34 5.5 2
10.34 5.5 1.9000001
10.34 5.5 1.8000001
10.34 5.5 1.7000003
10.34 5.5000005 1.6000003
10.34 5.5 1.4999999
10.340001 5.5000005 1.3999999
10.34 5.5 1.3
10.34 5.5 1.2000002
10.34 5.5 1.1000001
10.34 5.5 1.0000002
10.34 5.5 0.89999974
10.34 5.5 0.79999989
10.34 5.5000005 0.69999993
10.34 5.5 0.60000008
10.340001 5.5000005 0.50000012
10.34 5.5 0.40000024
10.34 5.5000005 0.29999971
10.34 5.5 0.19999981
10.340001 5.5000005 0.099999905
10.34 5.5000005 0
10.33 5.5 10
10.33 5.5 9.8999996
10.33 5.5 9.8000002
10.330001 5.5 9.7000008
10.33 5.4999995 9.5999994
10.33 5.4999995 9.499999
10.33 5.5 9.3999996
10.330001 5.5000005 9.3000002
10.33 5.5 9.1999998
10.330001 5.5 9.1000004
10.33 5.5 9
10.33 5.5 8.8999996
10.33 5.5 8.8000002
10.33 5.5 8.6999998
10.330001 5.5 8.6000004
10.330001 5.5000005 8.5
10.33 5.5 8.3999996
10.330001 5.5 8.3000002
10.33 5.5000005 8.1999998
10.330001 5.5 8.0999994
10.33 5.5 8
10.330001 5.5000005 7.9000001
10.33 5.4999995 7.7999992
10.329999 5.5 7.6999998
10.33 5.5 7.5999999
10.33 5.5 7.5
10.33 5.5 7.4000001
10.33 5.5 7.3000002
10.33 5.5 7.1999998
10.33 5.5 7.1000009
10.33 5.5 6.9999995
10.33 5.5 6.8999996
10.330001 5.5 6.8000002
10.329999 5.4999995 6.6999993
10.329999 5.4999995 6.5999994
10.33 5.5 6.5
10.33 5.5 6.3999996
10.33 5.5 6.3000002
10.33 5.5 6.1999998
10.329999 5.5 6.0999999
10.33 5.5 6
10.33 5.5 5.9000006
10.33 5.5 5.8000002
10.33 5.5 5.6999998
10.33 5.5 5.5999999
10.33 5.5 5.5
10.33 5.5 5.3999996
10.33 5.5 5.2999997
10.33 5.4999995 5.1999998
10.33 5.5 5.0999999
10.33 5.5 5
10.33 5.5 4.9000001
10.33 5.5 4.8000002
10.33 5.5 4.6999998
10.33 5.5 4.5999994
10.33 5.5 4.5
10.33 5.5 4.4000001
10.33 5.5 4.3000002
10.33 5.5 4.1999998
10.33 5.5 4.1000004
10.33 5.5 4
10.33 5.4999995 3.8999996
10.33 5.5 3.8
10.33 5.5 3.7
10.33 5.5 3.5999999
10.33 5.5 3.5000002
10.33 5.5 3.3999996
10.33 5.5 3.2999997
10.33 5.5 3.1999998
10.33 5.5 3.0999999
10.33 5.5 3
10.33 5.5 2.9000001
10.33 5.5 2.7999997
10.33 5.5 2.6999998
10.33 5.5 2.5999999
10.33 5.5 2.5
10.33 5.5 2.4000001
10.33 5.5 2.3000002
10.33 5.5 2.2000003
10.33 5.5 2.0999997
10.33 5.5 2
10.33 5.5 1.9
10.33 5.5 1.8
10.33 5.5 1.7
10.33 5.5 1.6000001
10.33 5.5 1.4999998
10.33 5.5 1.3999999
10.33 5.5 1.3
10.33 5.5 1.2
10.33 5.5 1.1000001
10.33 5.5 1.0000002
10.33 5.5 0.89999968
10.33 5.5 0.79999983
10.33 5.5 0.69999993
10.33 5.5 0.60000002
10.33 5.4999995 0.50000012
10.33 5.4999995 0.40000024
10.33 5.5 0.29999971
10.33 5.5 0.19999979
10.33 5.5 0.099999897
10.33 5.5 0
10.32 5.5 10
10.32 5.5000005 9.8999996
10.320001 5.5000005 9.8000002
10.32 5.5 9.7000008
10.320001 5.4999995 9.5999994
10.32 5.5000005 9.5
10.32 5.5 9.4000006
10.320002 5.5000005 9.3000002
10.32 5.4999995 9.2000008
10.320001 5.4999995 9.1000004
10.32 5.5 9
10.32 5.5 8.8999996
10.320001 5.5000005 8.8000002
10.32 5.5 8.6999998
10.32 5.5 8.6000004
10.320001 5.5 8.5
10.32 5.5000005 8.4000006
10.32 5.5 8.2999992
10.32 5.5 8.1999998
10.32 5.5 8.1000004
10.320001 5.5 8
10.320001 5.5000005 7.9000001
10.32 5.5 7.8000002
10.32 5.5 7.7000003
10.32 5.4999995 7.5999999
10.32 5.5 7.5
10.32 5.5 7.4000006
10.320001 5.5000005 7.3000002
10.320001 5.5 7.2000003
10.320001 5.5000005 7.1000004
10.32 5.5000005 7
10.320001 5.5 6.9000001
10.32 5.5000005 6.8000002
10.32 5.5 6.6999993
10.32 5.5 6.5999994
10.320001 5.5 6.5
10.32 5.5 6.4000001
10.320001 5.5000005 6.3000002
10.32 5.5 6.2000003
10.320001 5.5 6.1000004
10.320001 5.5 6
10.32 5.5 5.9000006
10.32 5.5 5.8000007
10.32 5.5 5.6999998
10.32 5.5 5.6000004
10.32 5.5 5.5000005
10.32 5.5 5.3999996
10.32 5.5 5.2999997
10.32 5.5 5.1999998
10.32 5.5 5.0999999
10.32 5.5 5
10.32 5.5 4.9000001
10.32 5.5 4.8000002
10.32 5.5 4.7000003
10.32 5.5 4.5999999
10.32 5.5 4.5
10.32 5.5 4.4000001
10.32 5.5 4.3000002
10.32 5.5 4.2000003
10.32 5.5 4.1000004
10.32 5.5 3.9999998
10.32 5.5 3.9000001
10.32 5.5 3.8
10.320001 5.5 3.7000003
10.32 5.5 3.6000001
10.32 5.5 3.5000005
10.32 5.5 3.3999999
10.32 5.5 3.2999997
10.32 5.5 3.2
10.320001 5.5 3.1000001
10.32 5.5 3
10.32 5.5 2.9000003
10.320001 5.5 2.7999997
10.32 5.5 2.6999998
10.32 5.5 2.5999999
10.32 5.5 2.5
10.32 5.5 2.4000001
10.32 5.5 2.3000002
10.320001 5.5 2.2000003
10.32 5.5 2.0999997
10.32 5.5 1.9999999
10.32 5.5 1.9
10.32 5.5 1.8000001
10.32 5.5 1.7
10.32 5.5 1.6000001
10.320001 5.5 1.4999998
10.32 5.5 1.3999999
10.32 5.5 1.3
10.32 5.5 1.2
10.32 5.5 1.1000001
10.32 5.5 1.0000002
10.32 5.5 0.89999974
10.32 5.5 0.79999983
10.320001 5.5 0.69999993
10.32 5.5 0.60000002
10.32 5.5 0.50000012
10.320001 5.5 0.40000021
10.32 5.5 0.29999971
10.320001 5.5 0.19999979
10.32 5.5 0.099999897
10.32 5.5 0
10.31 5.5 10
10.31 5.4999995 9.8999996
10.31 5.5 9.8000002
10.309999 5.5 9.7000008
10.309999 5.5 9.6000004
10.31 5.5000005 9.5
10.309999 5.4999995 9.3999996
10.310001 5.5 9.3000002
10.309999 5.5000005 9.2000008
10.309999 5.4999995 9.0999994
10.309999 5.4999995 9
10.309999 5.5 8.8999996
10.310001 5.5 8.8000002
10.309999 5.5 8.6999998
10.309999 5.5 8.6000004
10.31 5.5000005 8.5
10.31 5.5000005 8.3999996
10.31 5.5 8.2999992
10.309999 5.5 8.1999998
10.309999 5.5 8.1000004
10.31 5.5 8
10.31 5.5 7.9000001
10.31 5.5 7.7999997
10.309999 5.4999995 7.6999993
10.309999 5.5 7.6000004
10.31 5.5 7.5
10.309999 5.5 7.3999996
10.310001 5.5 7.3000002
10.31 5.5 7.2000003
10.309999 5.5 7.0999999
10.31 5.5 6.9999995
10.309999 5.5 6.8999996
10.309999 5.5 6.8000002
10.31 5.5 6.6999998
10.309999 5.4999995 6.5999994
10.309999 5.5 6.5
10.31 5.5 6.4000001
10.31 5.5 6.2999997
10.31 5.5 6.2000003
10.31 5.5 6.0999999
10.309999 5.5 6
10.309999 5.5 5.9000006
10.31 5.5 5.8000007
10.31 5.5 5.6999998
10.309999 5.5 5.5999999
10.31 5.5 5.5
10.309999 5.5 5.3999996
10.309999 5.4999995 5.2999997
10.309999 5.5 5.1999998
10.309999 5.5 5.0999999
10.31 5.5 5
10.309999 5.5 4.9000001
10.309999 5.5 4.8000002
10.309999 5.5 4.7000003
10.309999 5.5 4.5999999
10.309999 5.5 4.5
10.309999 5.5 4.4000001
10.309999 5.5 4.3000002
10.309999 5.5 4.1999998
10.309999 5.5 4.1000004
10.309999 5.5 3.9999998
10.309999 5.5 3.8999999
10.309999 5.5 3.8000002
10.309999 5.5 3.6999998
10.31 5.5 3.6000001
10.309999 5.5 3.5
10.309999 5.5 3.3999996
10.309999 5.5 3.2999997
10.309999 5.5 3.2
10.31 5.5 3.1000001
10.309999 5.5 3
10.309999 5.5 2.9000003
10.31 5.5 2.7999997
10.309999 5.5 2.6999998
10.309999 5.5 2.5999999
10.31 5.5 2.5
10.309999 5.5 2.4000001
10.309999 5.5 2.3000002
10.31 5.5 2.2000003
10.31 5.5 2.0999999
10.309999 5.5 1.9999999
10.309999 5.5 1.9000001
10.31 5.5 1.8000001
10.309999 5.5 1.7000003
10.309999 5.5 1.6000003
10.31 5.5 1.4999998
10.309999 5.5 1.3999999
10.309999 5.5 1.3
10.31 5.5 1.2
10.309999 5.5 1.1000001
10.309999 5.5 1.0000002
10.309999 5.5 0.8999998
10.309999 5.5 0.79999983
10.31 5.5 0.69999993
10.309999 5.5 0.60000002
10.31 5.5 0.50000012
10.309999 5.5 0.40000018
10.309999 5.5 0.29999971
10.309999 5.5 0.19999981
10.31 5.5 0.099999905
10.31 5.5 0
10.3 5.5 10
10.3 5.5 9.8999996
10.300001 5.5 9.8000002
10.300001 5.5 9.7000008
10.300001 5.5 9.6000004
10.3 5.4999995 9.5
10.3 5.5 9.4000006
10.300001 5.5 9.3000002
10.3 5.5 9.1999998
10.300001 5.4999995 9.0999994
10.299999 5.5 9
10.299999 5.5 8.8999996
10.3 5.5 8.8000002
10.3 5.5000005 8.7000008
10.3 5.5 8.6000004
10.3 5.5 8.5
10.3 5.5000005 8.4000006
10.3 5.5 8.3000002
10.3 5.5 8.2000008
10.3 5.5 8.1000004
10.300001 5.5 8.000001
10.3 5.5 7.9000001
10.300001 5.5 7.8000002
10.3 5.5 7.6999998
10.3 5.5 7.5999999
10.300001 5.5 7.5
10.3 5.5 7.4000001
10.300001 5.5000005 7.3000007
10.3 5.5 7.2000003
10.3 5.5 7.1000004
10.3 5.5 7
10.3 5.5 6.9000001
10.300001 5.5000005 6.8000007
10.299999 5.5 6.6999998
10.3 5.5 6.5999994
10.299999 5.5 6.5
10.300001 5.5000005 6.4000006
10.3 5.5 6.3000002
10.3 5.5 6.1999998
10.3 5.5 6.1000004
10.300001 5.5000005 6
10.300001 5.5000005 5.9000006
10.300001 5.5 5.8000002
10.3 5.5 5.6999998
10.3 5.5 5.5999999
10.3 5.5 5.5
10.3 5.5 5.3999996
10.3 5.5 5.2999997
10.299999 5.5 5.1999998
10.3 5.5 5.0999999
10.3 5.5 5
10.3 5.5 4.9000001
10.3 5.5 4.8000007
10.3 5.5 4.7000003
10.3 5.5 4.5999999
10.3 5.5 4.5
10.3 5.5 4.4000001
10.3 5.5 4.3000002
10.3 5.5 4.2000003
10.3 5.5 4.1000004
10.3 5.5 3.9999998
10.3 5.5 3.9000001
10.3 5.5 3.8
10.300001 5.5 3.7
10.300001 5.5000005 3.6000001
10.3 5.5 3.5000002
10.300001 5.5 3.3999996
10.3 5.5 3.2999997
10.300001 5.5 3.2000003
10.3 5.5 3.0999999
10.3 5.5 3
10.300001 5.5 2.9000001
10.3 5.5 2.7999997
10.300001 5.5000005 2.6999998
10.299999 5.5 2.5999999
10.3 5.5 2.5
10.3 5.5 2.4000003
10.3 5.5 2.3000002
10.3 5.5000005 2.2000003
10.3 5.5 2.0999999
10.3 5.5 1.9999999
10.3 5.5 1.9
10.3 5.5 1.8000001
10.299999 5.5 1.7000003
10.3 5.5 1.6000003
10.299999 5.5 1.4999998
10.3 5.5 1.3999999
10.300001 5.5000005 1.3
10.3 5.5 1.2000002
10.3 5.5 1.1000001
10.299999 5.5 1.0000002
10.3 5.5 0.89999974
10.3 5.5 0.79999983
10.3 5.5 0.69999993
10.300001 5.5 0.60000008
10.3 5.5 0.50000012
10.3 5.5 0.40000021
10.3 5.5 0.29999971
10.3 5.5 0.19999982
10.3 5.5 0.099999912
10.3 5.5 0
10.29 5.5 10
10.29 5.4999995 9.8999996
10.29 5.5 9.8000002
10.29 5.5 9.7000008
10.289999 5.5 9.6000004
10.29 5.5 9.5
10.29 5.5000005 9.3999996
10.290001 5.5000005 9.3000002
10.29 5.5 9.1999998
10.289999 5.5 9.0999994
10.290001 5.5 9
10.29 5.5 8.8999996
10.290001 5.5 8.8000002
10.29 5.4999995 8.6999998
10.29 5.5 8.6000004
10.29 5.5000005 8.5
10.29 5.5 8.4000006
10.290001 5.5 8.3000002
10.290001 5.5000005 8.1999998
10.29 5.5 8.1000004
10.290001 5.5 8
10.290001 5.5 7.9000001
10.289999 5.5 7.7999997
10.290001 5.5 7.7000003
10.29 5.5 7.6000004
10.290001 5.5 7.5
10.29 5.5000005 7.4000001
10.290001 5.5000005 7.3000002
10.29 5.5 7.2000003
10.290001 5.5 7.1000004
10.290001 5.5000005 7
10.290001 5.5 6.9000001
10.29 5.5 6.8000002
10.29 5.5 6.6999998
10.29 5.5 6.5999994
10.289999 5.5 6.4999995
10.29 5.5 6.3999996
10.29 5.5 6.3000002
10.29 5.5 6.2000003
10.29 5.5 6.1000004
10.29 5.5 6
10.290001 5.5000005 5.9000006
10.290001 5.5 5.8000002
10.29 5.5 5.7000003
10.29 5.5 5.6000004
10.29 5.5 5.5
10.289999 5.5 5.3999996
10.29 5.5 5.2999997
10.29 5.5 5.2000003
10.29 5.5 5.1000004
10.29 5.5 5
10.29 5.5 4.9000001
10.29 5.5 4.8000002
10.29 5.5 4.7000003
10.290001 5.5 4.5999999
10.290001 5.5 4.5
10.290001 5.5 4.4000001
10.29 5.5 4.3000002
10.29 5.5 4.2000003
10.29 5.5 4.1000004
10.29 5.5 3.9999998
10.29 5.5 3.8999999
10.29 5.5 3.8000002
10.29 5.5 3.7
10.29 5.5 3.6000001
10.29 5.5 3.5
10.290001 5.5 3.3999999
10.290001 5.5 3.2999997
10.29 5.5 3.1999998
10.290001 5.5 3.1000001
10.290001 5.5 3
10.29 5.5 2.9000001
10.29 5.5 2.7999997
10.29 5.5 2.6999998
10.290001 5.5 2.6000001
10.290001 5.5 2.5
10.29 5.5 2.4000001
10.290001 5.5 2.3000002
10.29 5.5 2.2000003
10.290001 5.5 2.0999999
10.29 5.5 1.9999999
10.29 5.5 1.9000001
10.290001 5.5 1.8000001
10.290001 5.5 1.7000002
10.29 5.5 1.6000003
10.29 5.5 1.4999998
10.290001 5.5 1.3999999
10.290001 5.5 1.3000001
10.29 5.5 1.2
10.290001 5.5 1.1000001
10.290001 5.5 1.0000002
10.29 5.5 0.8999998
10.29 5.5 0.79999983
10.29 5.5 0.69999993
10.29 5.5 0.60000002
10.290001 5.5 0.50000012
10.29 5.5000005 0.40000021
10.29 5.5 0.29999971
10.289999 5.5 0.19999981
10.290001 5.5 0.099999905
10.29 5.5 0
10.28 5.5 10
10.28 5.5 9.8999996
10.28 5.5 9.8000002
10.280001 5.5 9.6999998
10.279999 5.5 9.6000004
10.279999 5.4999995 9.499999
10.279999 5.5 9.3999996
10.280001 5.5 9.2999992
10.28 5.5 9.1999998
10.279999 5.4999995 9.0999994
10.28 5.4999995 9
10.28 5.5 8.8999996
10.28 5.5 8.8000002
10.28 5.5 8.6999989
10.279999 5.4999995 8.5999994
10.280001 5.5 8.5
10.280001 5.5 8.3999996
10.279999 5.4999995 8.2999992
10.28 5.5 8.1999998
10.280001 5.5 8.1000004
10.280001 5.5 8
10.28 5.4999995 7.8999996
10.279999 5.4999995 7.7999992
10.279999 5.4999995 7.6999993
10.28 5.5 7.5999994
10.28 5.5 7.5
10.28 5.4999995 7.3999996
10.280001 5.5000005 7.3000002
10.28 5.5 7.2000003
10.28 5.5 7.1000004
10.279999 5.5 6.9999995
10.28 5.5 6.8999996
10.279999 5.4999995 6.8000002
10.28 5.4999995 6.6999993
10.279999 5.4999995 6.5999999
10.28 5.5 6.4999995
10.28 5.5 6.3999996
10.28 5.5 6.2999992
10.28 5.5 6.1999998
10.28 5.5 6.0999999
10.280001 5.5 6
10.28 5.5 5.9000006
10.280001 5.5 5.8000002
10.28 5.4999995 5.6999998
10.28 5.5 5.5999994
10.28 5.5 5.5
10.279999 5.4999995 5.3999996
10.279999 5.5 5.2999997
10.28 5.5 5.1999998
10.28 5.5 5.0999994
10.28 5.5 5
10.28 5.5 4.9000001
10.28 5.5 4.8000002
10.28 5.5 4.7000003
10.28 5.5 4.5999994
10.28 5.5 4.5
10.28 5.5 4.4000001
10.279999 5.4999995 4.2999997
10.280001 5.4999995 4.1999998
10.28 5.5 4.1000004
10.279999 5.5 3.9999998
10.28 5.5 3.8999996
10.28 5.5 3.7999997
10.28 5.5 3.6999998
10.28 5.5 3.6000001
10.28 5.5 3.5
10.28 5.5 3.3999994
10.28 5.5 3.3
10.28 5.5 3.1999998
10.28 5.5 3.0999999
10.279999 5.5 3
10.280001 5.5 2.9000001
10.280001 5.5 2.7999997
10.28 5.5 2.6999998
10.28 5.5 2.5999999
10.28 5.5 2.5
10.279999 5.5 2.4000001
10.279999 5.5 2.3000002
10.28 5.4999995 2.2000003
10.279999 5.4999995 2.0999997
10.28 5.5 1.9999999
10.280001 5.5 1.8999999
10.28 5.5 1.8000001
10.28 5.5 1.7000002
10.28 5.5 1.6000001
10.28 5.5 1.4999996
10.28 5.4999995 1.3999999
10.28 5.5 1.3
10.28 5.5 1.2
10.28 5.5 1.1000001
10.280001 5.5 1.0000002
10.28 5.5 0.89999968
10.28 5.5 0.79999983
10.28 5.5 0.69999993
10.279999 5.5 0.60000002
10.28 5.4999995 0.50000012
10.28 5.5 0.40000021
10.28 5.5 0.29999971
10.28 5.4999995 0.19999979
10.28 5.5 0.099999897
10.28 5.5 0
10.27 5.4999995 10
10.27 5.4999995 9.9000006
10.27 5.5000005 9.8000002
10.27 5.5 9.7000008
10.27 5.4999995 9.5999994
10.27 5.4999995 9.5
10.27 5.5 9.3999996
10.27 5.5 9.2999992
10.27 5.5000005 9.2000008
10.269999 5.5 9.1000004
10.27 5.5 8.999999
10.27 5.5 8.8999996
10.27 5.5 8.7999992
10.27 5.5 8.6999998
10.27 5.5 8.6000004
10.27 5.5000005 8.5
10.27 5.5 8.3999996
10.27 5.5 8.2999992
10.27 5.5 8.1999998
10.27 5.4999995 8.0999994
10.27 5.5 8
10.27 5.5 7.9000001
10.269999 5.499999 7.7999992
10.27 5.4999995 7.6999998
10.27 5.4999995 7.5999994
10.27 5.5 7.4999995
10.27 5.5 7.4000001
10.27 5.5 7.3000002
10.27 5.5 7.2000003
10.27 5.5 7.1000004
10.27 5.5 7
10.27 5.5 6.9000001
10.27 5.4999995 6.8000002
10.27 5.5 6.6999993
10.27 5.5 6.5999994
10.27 5.5 6.4999995
10.27 5.5 6.3999996
10.27 5.5 6.2999997
10.27 5.5 6.2000003
10.27 5.5 6.1000004
10.27 5.5 6
10.27 5.5 5.9000006
10.27 5.5 5.8000002
10.27 5.5 5.6999998
10.27 5.5 5.5999999
10.27 5.5 5.5
10.27 5.5 5.3999996
10.27 5.5 5.2999997
10.27 5.4999995 5.1999998
10.27 5.5 5.0999999
10.27 5.4999995 5
10.27 5.5 4.9000001
10.27 5.5 4.8000002
10.27 5.5 4.6999998
10.27 5.5 4.5999999
10.27 5.5 4.4999995
10.27 5.5 4.3999996
10.27 5.5 4.3000002
10.27 5.5 4.1999998
10.27 5.5 4.1000004
10.27 5.5 3.9999995
10.27 5.5 3.8999996
10.27 5.5 3.7999997
10.27 5.5 3.7
10.27 5.5 3.6000001
10.27 5.5 3.5000002
10.27 5.5 3.3999996
10.27 5.5 3.2999997
10.27 5.5 3.1999998
10.27 5.5 3.1000001
10.27 5.5 3
10.269999 5.5 2.9000001
10.27 5.5 2.7999997
10.27 5.5 2.6999998
10.27 5.5 2.5999999
10.27 5.5 2.5
10.27 5.5 2.4000001
10.27 5.5 2.3000002
10.27 5.5 2.2000003
10.27 5.5 2.0999999
10.27 5.5 1.9999998
10.27 5.5 1.8999999
10.27 5.5 1.8000001
10.27 5.5 1.7000002
10.27 5.5 1.6000001
10.27 5.5 1.4999998
10.27 5.5 1.3999999
10.27 5.5 1.3
10.27 5.4999995 1.2
10.27 5.5 1.1000001
10.27 5.5 1.0000002
10.27 5.5 0.8999998
10.27 5.5 0.79999977
10.27 5.5 0.69999993
10.27 5.5 0.60000002
10.27 5.5 0.50000012
10.27 5.4999995 0.40000021
10.27 5.5 0.29999971
10.27 5.5 0.19999981
10.27 5.5 0.099999905
10.27 5.4999995 0
10.26 5.5 10
10.26 5.4999995 9.8999996
10.26 5.5000005 9.8000002
10.26 5.5 9.7000008
10.259999 5.5 9.5999994
10.26 5.5 9.5
10.259999 5.5 9.3999996
10.26 5.5 9.2999992
10.259999 5.5 9.1999998
10.259999 5.5 9.0999994
10.259999 5.5 9
10.26 5.5 8.8999996
10.259999 5.5 8.7999992
10.26 5.4999995 8.6999998
10.259999 5.5 8.5999994
10.26 5.5 8.5
10.26 5.5 8.4000006
10.26 5.4999995 8.3000002
10.260001 5.4999995 8.1999998
10.26 5.5 8.1000004
10.26 5.4999995 8
10.26 5.5 7.9000001
10.26 5.5 7.7999992
10.259999 5.4999995 7.6999989
10.26 5.5 7.5999999
10.26 5.5 7.5
10.26 5.4999995 7.3999996
10.26 5.5000005 7.3000002
10.26 5.5 7.2000003
10.26 5.5 7.0999999
10.26 5.5 7
10.26 5.5 6.9000001
10.259999 5.5 6.7999997
10.259999 5.5 6.6999998
10.259999 5.4999995 6.5999994
10.259999 5.5 6.5
10.259999 5.5 6.3999996
10.26 5.5 6.3000002
10.26 5.5 6.1999998
10.26 5.5 6.1000004
10.26 5.5 6
10.26 5.5 5.9000001
10.26 5.5 5.8000002
10.26 5.5 5.6999998
10.26 5.5 5.5999999
10.259999 5.5 5.5
10.259999 5.4999995 5.3999996
10.259999 5.4999995 5.2999997
10.259999 5.5 5.1999998
10.26 5.5 5.0999994
10.26 5.5 5
10.26 5.5 4.9000001
10.26 5.5 4.8000002
10.26 5.5 4.7000003
10.26 5.5 4.5999994
10.259999 5.5 4.5
10.26 5.5 4.3999996
10.26 5.5 4.2999997
10.26 5.5 4.2000003
10.26 5.5 4.1000004
10.26 5.5 4
10.26 5.5 3.8999996
10.26 5.5 3.8
10.26 5.5 3.6999998
10.26 5.5 3.6000001
10.26 5.5 3.5
10.26 5.5 3.3999996
10.259999 5.4999995 3.2999997
10.259999 5.5 3.1999998
10.26 5.5 3.0999999
10.26 5.5 3
10.26 5.5 2.9000001
10.26 5.5 2.7999997
10.26 5.5 2.6999998
10.26 5.5 2.5999999
10.26 5.5 2.5
10.26 5.5 2.4000001
10.259999 5.5 2.3000002
10.26 5.5 2.2000003
10.26 5.5 2.0999997
10.26 5.5 2
10.26 5.5 1.9
10.26 5.5 1.8000001
10.26 5.5 1.7
10.259999 5.5 1.6000003
10.26 5.5 1.4999998
10.259999 5.5 1.3999999
10.26 5.5 1.3
10.26 5.5 1.2
10.26 5.5 1.1000001
10.26 5.5 1.0000002
10.26 5.5 0.89999974
10.26 5.5 0.79999983
10.26 5.5 0.69999993
10.26 5.5 0.60000002
10.26 5.5 0.50000012
10.259999 5.5 0.40000018
10.26 5.5 0.29999971
10.26 5.5 0.19999981
10.26 5.5 0.099999905
10.26 5.5 0
10.25 5.5 10
10.25 5.5000005 9.8999996
10.25 5.5000005 9.8000002
10.25 5.5000005 9.7000008
10.249999 5.4999995 9.5999994
10.249999 5.5 9.5
10.25 5.5 9.3999996
10.250001 5.5 9.3000002
10.25 5.5 9.1999998
10.25 5.5000005 9.0999994
10.25 5.4999995 9
10.249999 5.5 8.8999996
10.249999 5.5 8.7999992
10.250001 5.5 8.7000008
10.250001 5.5 8.6000004
10.25 5.5000005 8.5
10.25 5.4999995 8.4000006
10.25 5.5 8.3000002
10.25 5.5 8.1999998
10.250001 5.5 8.1000004
10.25 5.5 8
10.25 5.5000005 7.9000001
10.25 5.4999995 7.7999997
10.25 5.4999995 7.6999998
10.25 5.4999995 7.5999999
10.25 5.5 7.5
10.25 5.5 7.4000001
10.25 5.5000005 7.3000002
10.25 5.5000005 7.2000003
10.25 5.5 7.1000004
10.25 5.5 7
10.25 5.5 6.8999996
10.25 5.5 6.8000002
10.25 5.4999995 6.6999998
10.249999 5.5 6.5999994
10.25 5.4999995 6.5
10.25 5.5 6.3999996
10.25 5.5 6.3000002
10.25 5.5 6.1999998
10.25 5.5 6.1000004
10.25 5.5 6
10.250001 5.5 5.9000006
10.25 5.5000005 5.8000002
10.25 5.5 5.6999998
10.25 5.5 5.6000004
10.25 5.5 5.5
10.25 5.5 5.3999996
10.25 5.5 5.2999997
10.25 5.5 5.1999998
10.25 5.5 5.0999999
10.25 5.5 5
10.25 5.5 4.9000001
10.25 5.5 4.8000002
10.25 5.5 4.7000003
10.25 5.5 4.5999999
10.25 5.5 4.5
10.25 5.5 4.3999996
10.25 5.5 4.3000002
10.25 5.5 4.2000003
10.25 5.5 4.1000004
10.25 5.5 3.9999998
10.25 5.5 3.8999999
10.25 5.5 3.8
10.25 5.5 3.7
10.25 5.5 3.6000001
10.25 5.5 3.5000002
10.25 5.5 3.3999999
10.25 5.5 3.2999997
10.25 5.5 3.1999998
10.25 5.5 3.0999999
10.25 5.5 3
10.25 5.5 2.9000001
10.25 5.5 2.7999997
10.25 5.5 2.6999998
10.25 5.5 2.5999999
10.25 5.5 2.5
10.25 5.5 2.4000001
10.25 5.5 2.3000002
10.25 5.5 2.2000003
10.25 5.5 2.0999999
10.25 5.5 1.9999999
10.25 5.5 1.9
10.25 5.5 1.8000001
10.25 5.5 1.7000002
10.25 5.5 1.6000003
10.25 5.5 1.4999998
10.25 5.5 1.3999999
10.25 5.5 1.3
10.25 5.5 1.2
10.25 5.5 1.1000001
10.25 5.5 1.0000002
10.25 5.5 0.89999974
10.25 5.5 0.79999983
10.25 5.5 0.69999993
10.25 5.5 0.60000002
10.25 5.5 0.50000012
10.25 5.5 0.40000021
10.25 5.5 0.29999971
10.25 5.5 0.19999981
10.25 5.5 0.099999905
10.25 5.5 0
10.24 5.5 10
10.24 5.5 9.9000006
10.240001 5.5 9.7999992
10.24 5.5 9.7000008
10.239999 5.4999995 9.6000004
10.240001 5.5 9.5
10.240001 5.5 9.4000006
10.24 5.5 9.3000002
10.240001 5.5 9.1999998
10.239999 5.4999995 9.0999994
10.24 5.5 9
10.24 5.5 8.8999996
10.24 5.5 8.8000002
10.240001 5.5000005 8.7000008
10.240001 5.5000005 8.6000004
10.24 5.5 8.5
10.240001 5.4999995 8.4000006
10.24 5.5 8.3000002
10.24 5.5000005 8.2000008
10.24 5.5 8.1000004
10.240001 5.5 8
10.24 5.5000005 7.9000006
10.24 5.5 7.7999997
10.24 5.5 7.6999998
10.24 5.5 7.5999994
10.24 5.5 7.5
10.24 5.5 7.4000001
10.240001 5.5 7.3000002
10.240001 5.5 7.1999998
10.240001 5.5 7.1000009
10.240001 5.5 7
10.24 5.5000005 6.9000006
10.24 5.5 6.8000002
10.24 5.4999995 6.6999998
10.24 5.5 6.5999994
10.24 5.4999995 6.5
10.24 5.5 6.3999996
10.24 5.5 6.2999997
10.24 5.5 6.2000003
10.24 5.5 6.0999999
10.24 5.5 6.0000005
10.240001 5.5000005 5.9000001
10.24 5.5 5.8000002
10.24 5.5 5.6999998
10.24 5.5 5.5999999
10.24 5.5 5.5
10.24 5.5 5.3999996
10.240001 5.5 5.2999997
10.24 5.5 5.1999998
10.24 5.5 5.1000004
10.24 5.5 5
10.24 5.5 4.8999996
10.24 5.5 4.8000002
10.240001 5.5 4.7000003
10.24 5.5 4.5999994
10.24 5.5 4.5
10.24 5.5 4.4000001
10.24 5.5 4.3000002
10.24 5.5 4.2000003
10.24 5.5 4.1000004
10.24 5.5 3.9999995
10.24 5.5 3.8999999
10.24 5.5 3.7999997
10.24 5.5 3.7
10.24 5.5 3.5999999
10.24 5.5 3.5000005
10.24 5.5 3.4000001
10.24 5.5 3.2999997
10.24 5.5 3.1999998
10.24 5.5 3.1000001
10.24 5.5 3.0000002
10.24 5.5 2.9000001
10.24 5.5 2.7999997
10.24 5.5 2.6999998
10.24 5.5 2.5999999
10.24 5.5 2.5
10.24 5.5 2.4000001
10.24 5.5 2.3000002
10.24 5.5 2.2000003
10.24 5.5 2.0999999
10.24 5.5 1.9999998
10.24 5.5 1.8999999
10.24 5.5 1.8
10.24 5.5 1.7000002
10.24 5.5 1.6000003
10.24 5.5 1.4999998
10.24 5.5 1.3999999
10.24 5.5 1.3
10.24 5.5 1.2
10.24 5.5 1.1000001
10.24 5.5 1.0000002
10.24 5.5 0.89999968
10.24 5.5 0.79999983
10.24 5.5 0.69999993
10.240001 5.5 0.60000002
10.24 5.5 0.50000012
10.24 5.5 0.40000024
10.24 5.5 0.29999971
10.24 5.5 0.19999981
10.24 5.5 0.099999905
10.24 5.5 0
10.23 5.5000005 10
10.23 5.5 9.9000006
10.23 5.5 9.8000002
10.23 5.5 9.7000008
10.23 5.5 9.6000004
10.23 5.5 9.5
10.23 5.5 9.4000006
10.23 5.5000005 9.3000002
10.23 5.5000005 9.2000008
10.23 5.5 9.0999994
10.23 5.5000005 9
10.23 5.5 8.8999996
10.23 5.5 8.8000002
10.230001 5.5 8.6999998
10.23 5.5000005 8.6000004
10.23 5.5000005 8.5
10.230001 5.5 8.4000015
10.23 5.5 8.3000002
10.23 5.5000005 8.1999998
10.230001 5.5 8.1000004
10.23 5.5000005 8.000001
10.23 5.5000005 7.9000006
10.23 5.5 7.8000002
10.23 5.4999995 7.6999998
10.23 5.5000005 7.6000004
10.23 5.5 7.5000005
10.23 5.4999995 7.4000001
10.23 5.5000005 7.3000007
10.23 5.5 7.2000003
10.23 5.5000005 7.1000004
10.23 5.5 7
10.23 5.5 6.9000006
10.23 5.5000005 6.8000002
10.23 5.5 6.6999998
10.23 5.5 6.5999999
10.23 5.5 6.5
10.23 5.5 6.4000001
10.23 5.5 6.3000002
10.23 5.5 6.1999998
10.23 5.5 6.1000004
10.23 5.5000005 6
10.23 5.5000005 5.9000006
10.23 5.5 5.8000002
10.23 5.5 5.6999998
10.23 5.5 5.6000004
10.23 5.5 5.5000005
10.23 5.5 5.3999996
10.23 5.5 5.2999997
10.23 5.5 5.1999998
10.23 5.5 5.1000004
10.23 5.5000005 5
10.23 5.5 4.9000001
10.23 5.5000005 4.8000002
10.23 5.5000005 4.7000008
10.23 5.5 4.5999999
10.23 5.5 4.5
10.23 5.5 4.4000001
10.23 5.5 4.3000002
10.23 5.5 4.2000008
10.23 5.5 4.1000004
10.23 5.5 4
10.23 5.5 3.9000001
10.23 5.5 3.8000002
10.23 5.5 3.7
10.23 5.5 3.6000001
10.23 5.5 3.5000005
10.23 5.5 3.3999999
10.23 5.5 3.3
10.23 5.5 3.2
10.23 5.5 3.0999999
10.23 5.5 3
10.23 5.5 2.9000001
10.23 5.5 2.8
10.23 5.5 2.6999998
10.23 5.5 2.5999999
10.23 5.5 2.5
10.23 5.5000005 2.4000001
10.23 5.5 2.3000002
10.23 5.5 2.2000003
10.23 5.5 2.0999999
10.23 5.5000005 2
10.23 5.5 1.9000001
10.23 5.5 1.8000001
10.23 5.5 1.7000003
10.23 5.5 1.6000004
10.23 5.5 1.4999998
10.23 5.5 1.4
10.23 5.5 1.3
10.23 5.5000005 1.2
10.23 5.5 1.1000001
10.23 5.5 1.0000002
10.23 5.5 0.89999974
10.23 5.5 0.79999983
10.23 5.5 0.69999999
10.23 5.5 0.60000002
10.23 5.5 0.50000012
10.23 5.5 0.40000021
10.23 5.5 0.29999971
10.23 5.5 0.19999981
10.23 5.5 0.099999905
10.23 5.5000005 0
10.22 5.5 10
10.22 5.5 9.9000006
10.22 5.5 9.8000002
10.22 5.5 9.7000008
10.219999 5.5 9.6000004
10.22 5.5000005 9.5
10.22 5.5 9.4000006
10.219999 5.5 9.3000002
10.220001 5.5000005 9.2000008
10.219999 5.5 9.1000004
10.219999 5.5 9
10.22 5.5 8.8999996
10.219999 5.5000005 8.8000002
10.22 5.5000005 8.7000008
10.220001 5.5000005 8.6000004
10.22 5.5 8.5
10.220001 5.5000005 8.4000006
10.219999 5.5 8.2999992
10.22 5.5000005 8.2000008
10.22 5.5 8.1000004
10.22 5.5 8
10.22 5.5 7.9000006
10.220001 5.5 7.8000002
10.22 5.5 7.6999998
10.22 5.5 7.6000004
10.22 5.5 7.5
10.22 5.5000005 7.4000001
10.220001 5.5 7.3000002
10.22 5.5 7.2000003
10.220001 5.500001 7.1000004
10.22 5.5 7
10.22 5.5 6.9000001
10.22 5.5000005 6.8000002
10.219999 5.5 6.6999998
10.22 5.5 6.5999994
10.22 5.5 6.5
10.22 5.5000005 6.4000001
10.220001 5.5 6.3000002
10.22 5.5000005 6.2000003
10.22 5.5 6.1000004
10.220001 5.5 6.000001
10.220001 5.5000005 5.9000001
10.22 5.5 5.8000007
10.22 5.5 5.7000003
10.22 5.5 5.6000004
10.22 5.5 5.5
10.22 5.5 5.4000001
10.219999 5.5 5.3000002
10.22 5.5 5.1999998
10.22 5.5000005 5.1000004
10.22 5.5 5
10.22 5.5 4.9000001
10.22 5.5 4.8000002
10.22 5.5 4.7000003
10.22 5.5 4.5999999
10.22 5.5 4.5
10.22 5.5 4.4000001
10.22 5.5 4.3000002
10.22 5.5 4.2000003
10.22 5.5 4.1000004
10.22 5.5 4
10.22 5.5 3.9000001
10.22 5.5000005 3.8000002
10.22 5.5 3.7
